# .PCD v0.7 - Point Cloud Data file format
VERSION 0.7
FIELDS x y z
SIZE 4 4 4
TYPE F F F
COUNT 1 1 1
WIDTH 1137
HEIGHT 1
VIEWPOINT 0 0 0 1 0 0 0
POINTS 1137
DATA ascii
-0.05166708431 -0.0380840776 -0.7835955673
-0.0885163858 -0.01440376162 -0.8236190351
-0.1125081726 -0.120516682 -0.1877351648
-0.1139309822 -0.02229291823 -0.78851962
-0.02806126817 -0.1546318007 -0.2442392384
-0.04582592148 -0.08256557672 -0.5442024515
-0.08484865615 -0.1025144806 -0.3329252943
-0.09375756133 -0.09420679706 -0.3187216835
-0.04887700088 -0.1705922101 -0.04972559592
-0.08874122979 -0.01360607184 -0.7440242218
-0.1139667228 -0.09244120139 -0.2292537679
-0.03976502655 -0.1089915021 -0.3888598181
-0.05049271389 -0.1422698777 -0.2731674126
-0.007701401519 -0.1371203523 -0.2807128112
0.0187313864 -0.1279634716 -0.2482596538
-0.08827064262 -0.09321728495 -0.3687718846
-0.09696148985 -0.07071872825 -0.3439568954
-0.07306936225 -0.1652028198 -0.05649903908
-0.01901666815 -0.07814551777 -0.4475893437
-0.04135360741 -0.1727767206 -0.1307193913
-0.05067816523 -0.06395825372 -0.6288411055
-0.05217038567 -0.02382955111 -0.7954207443
-0.112420726 -0.01147345877 -0.7649630379
-0.04308678665 -0.03879882964 -0.6120140175
-0.1104710255 -0.1441115678 -0.07033400791
-0.1303802597 -0.08136097551 -0.1373428067
-0.1337842232 -0.07890842297 0.4072193034
0.02407443901 -0.1406241762 -0.2048792664
-0.04717809978 -0.1443967065 -0.2698186172
-0.04910011468 -0.07773931875 -0.5846116497
-0.08077434856 -0.02202450797 -0.3220656471
-0.1144337458 -0.08514052898 -0.2335031832
-0.1310513803 -0.1145999406 -0.1012381083
-0.1206822229 -0.04860150737 0.3050104426
-0.1125681672 0.01114032926 0.3297362024
-0.06756617111 0.06207835425 0.3443042959
-0.02869057381 0.1192512217 0.3854191642
0.02291104441 0.1470313449 0.4125876818
0.07180967183 0.1644925512 0.3731170006
0.1115677794 0.1831600502 0.2746371018
0.1244641321 0.1669634539 0.2016527184
0.1540600003 0.179461163 0.1390914414
0.2093382684 0.2214903547 0.1544597193
-0.08153507785 -0.1602519751 -0.0446379277
-0.06859040556 -0.0268680738 -0.7534141364
-0.1164878743 -0.1360072715 -0.05995601097
-0.0139727034 -0.1027979681 -0.4048983986
-0.02433765917 -0.1309721385 -0.3099987925
0.01474930184 -0.1074233719 -0.3034342303
0.02408080696 -0.1112380194 -0.2639203453
-0.02618407363 -0.04443447402 -0.4887753321
-0.04847870627 -0.002641262824 -0.4900666687
-0.07148088897 -0.1288960334 0.4593367281
-0.1350926256 -0.106845848 -0.07256984541
-0.06027926093 -0.04281578312 -0.7379520747
-0.119943674 -0.081099199 -0.2019361129
-0.1243439926 -0.08651841212 -0.1746480332
-0.1292192678 -0.04183512413 0.335883078
-0.1329829515 -0.06154221716 0.4041576561
-0.1055513392 -0.01500795325 0.4595358842
-0.07141464957 0.01525721536 0.4757445345
-0.1252090958 -0.007258343701 -0.5916187286
-0.04283440316 -0.1720305124 -0.0569489977
-0.06695639018 -0.1617950058 -0.02360034444
-0.1360009912 -0.08064783672 0.3494976741
-0.1330609522 -0.03642054164 0.3788016951
-0.1315066513 -0.05907998183 0.3460862035
-0.01633123604 -0.1742680073 -0.1173692152
0.02189771347 -0.1545244822 -0.07109754557
0.06501665493 -0.08341034256 -0.05808697514
-0.09649291317 -0.04160092346 -0.3122785502
-0.09901634643 -0.03657232363 -0.2832945373
-0.04913689602 -0.03379510542 -0.8125922016
-0.04713709591 -0.001563641977 -0.3407078519
-0.1334660841 -0.1118542603 -0.08071388081
-0.006393223475 -0.1631950951 -0.1949956058
0.01365239101 -0.1591059329 -0.1695674161
0.03006553735 -0.09275491514 -0.2664547737
0.04253094685 -0.09997662873 -0.1946467374
0.04991153025 -0.09495965841 -0.1185058241
0.003576324111 -0.1681819463 -0.08141687039
-0.07971562943 -0.1548250608 -0.01751016245
-0.124479813 -0.07508423879 0.02217892309
-0.1430090995 -0.05629506653 -0.03600363331
-0.09670030627 -0.05477222046 -0.3562763468
-0.1107257721 -0.06967515561 -0.2615316958
-0.1091758778 -0.05337722023 -0.2523503344
-0.09436505879 -0.00638328096 -0.8463480006
-0.00427450114 -0.1095202648 -0.3646447156
0.009610162682 -0.06474905496 -0.362906374
-0.004657131575 -0.02338667897 -0.3773826776
-0.01173135458 -0.1725813902 -0.1372760403
0.007854759766 -0.1666686285 -0.1340617878
-0.08203310779 -0.1479498936 -0.001247322276
-0.06771606958 -0.146152968 0.04102454324
0.01059362941 -0.1459805294 -0.0007531903651
0.0391115742 -0.1265013617 -0.02830039657
-0.08771876783 -0.1453200606 -0.004406419903
-0.09708646586 -0.1174589372 0.03987772842
-0.1010152889 -0.1390726728 -0.01653698048
-0.1263423829 -0.1151992962 -0.03307425427
-0.07335834997 -0.04477807829 -0.8568949329
-0.06943484748 -0.02175970392 -0.7838330686
-0.06882521869 -0.02575809928 -0.7641126778
-0.08681361654 -0.01749571097 -0.7968071501
-0.1022538372 0.002119172988 -0.627828767
-0.04587162791 -0.165887338 -0.02309687908
-0.1152104681 -0.07007622979 -0.2262962462
-0.08899907927 -0.08962285632 0.2656511343
-0.0511862216 -0.110552775 0.2025992751
-0.08610792738 -0.08122068599 0.1184126302
-0.06732180701 0.02124357452 0.09536479883
-0.09143086329 -0.01393598319 -0.7538664616
0.002399664155 -0.1500004629 -0.2330248741
-0.07392894307 -0.01683191709 -0.3516480446
-0.04463562864 -0.1314090028 0.310699617
0.03417930936 -0.1139024966 0.2509993826
0.06937820378 -0.1168560526 0.2945892168
0.05634628354 -0.1211458291 0.3236692678
0.04557233124 -0.09212411651 0.3667773075
0.03574402342 -0.07148227126 0.4049905599
-0.01014612834 -0.08854274017 0.439188489
-0.1120863337 -0.0478035602 0.28002857
-0.07963255801 -0.04150595932 0.1817363703
-0.06194756537 0.002916572775 0.1406556541
-0.03824223905 0.03794609338 0.1301276708
-0.01634316537 0.0948503206 0.08120612512
-0.1281752024 -0.1179620588 -0.05094932251
-0.08498009575 -0.01476776927 -0.842155336
0.003081643843 -0.1621499285 -0.1848032495
0.003287437762 -0.1694854404 -0.0970820149
-0.08910464137 -0.01602251023 -0.4187862601
-0.01144375711 -0.119327866 0.247181781
-0.05719435985 -0.1160373663 0.2673439271
-0.1313983973 -0.07028126143 -0.1236553624
-0.1239715702 -0.06467300614 0.3212240688
-0.1288260653 -0.06109719541 0.4196696537
-0.1055940277 -0.009234081768 -0.7337078254
-0.02391752764 -0.1700202325 -0.04541830604
-0.05661813377 -0.1516650736 0.02812006679
-0.1170975862 -0.1241080883 -0.02233290151
-0.1339277422 -0.09381647609 -0.02652792888
-0.09937789263 -0.009747626404 -0.7423871116
-0.08254372493 -0.05410376566 0.1996356204
-0.07625774991 -0.01891990294 0.1245138769
-0.03435717572 0.06475574429 0.09493397831
0.003767324521 -0.09391002914 -0.3830927457
0.0210066277 -0.08801811846 -0.3164632247
-0.0508711295 -0.02104866026 -0.6331747137
-0.0704431672 -0.02537586582 -0.7570028019
-0.07988652585 -0.01179432986 -0.4190115835
-0.1400766531 -0.0853910304 -0.065142393
-0.1223283116 -0.03797135989 0.3071712288
-0.07154155454 0.008987327189 -0.5449916453
-0.01188435472 -0.05632760512 -0.432813812
-0.01204440578 -0.02265264135 -0.4107875573
0.003363226841 -0.08294365279 -0.3948530981
-0.001931306378 -0.05159866207 -0.3882150683
-0.04252378063 -0.05320128349 -0.5972816894
-0.07078694741 -0.1178385501 0.3080077967
-0.1134435546 -0.05856086575 -0.2218686181
-0.08829788201 -0.07571196464 0.2327896508
-0.1124033549 0.001948628211 -0.5974664811
-0.009454178184 -0.06147426892 -0.4272294703
-0.08707628397 -0.001754117672 -0.4649431838
-0.06117625842 -0.1479554121 0.3817573107
-0.03274926129 -0.1275150642 0.4073883593
-0.03155012362 -0.0353277035 -0.5107919244
-0.1004990913 -0.06209994251 0.2580173759
-0.1115628593 -0.0306074162 -0.1279968556
-0.08884484666 0.003779675738 -0.4881569129
-0.05805373852 -0.1412208371 0.417003013
-0.0304463927 -0.1533227291 0.04141566541
-0.1301631452 -0.09691169722 -0.01710258532
-0.1341845947 -0.06345494034 -0.1074695559
-0.082205509 0.008639034281 -0.5729767979
0.02933241782 -0.1500134324 -0.114680338
0.01037025365 -0.1624358566 -0.06495848236
0.007360472932 -0.07809850693 -0.3762540016
-0.03672958434 -0.1365303433 0.3241595638
-0.04470198025 -0.1362519145 0.3492039376
-0.03668687256 -0.1533736666 0.03893609087
-0.05855573713 -0.1381034873 0.07701516608
-0.09887316598 -0.09656803899 0.07126652485
-0.1085413516 -0.07225932848 0.4687807176
-0.08457515215 -0.06688908965 0.4845603059
-0.1191783978 -0.1160315104 -0.01304460962
-0.08057453599 -0.008906817401 -0.6991213609
-0.09017732158 -0.02276831128 -0.2100470262
-0.1387899097 -0.09089943401 -0.05351655027
-0.09734619747 0.007009950698 -0.5939609247
-0.03888007085 -0.02138609837 -0.552950945
-0.05849843113 -0.1208561539 0.2912548816
-0.110512898 -0.08618100269 0.05455449765
-0.09376290136 -0.0008510465473 -0.6623638374
-0.02555025553 -0.0400245721 -0.4822675356
-0.04453566464 -0.008517267667 -0.5389312384
-0.07845959525 -0.1252032517 0.06985711559
-0.035995147 -0.1421706263 0.1008141548
-0.07386587311 -0.09934437503 0.1423776684
-0.01241377073 -0.1287220551 0.1608948664
-0.07419366986 -0.08197321338 0.1663637795
-0.05847186201 -0.1040158626 0.1976926273
-0.08021929978 -0.08539432099 0.2189632628
-0.09164867511 -0.07394991426 0.2450830067
-0.04996902212 -0.001977205564 -0.4337703058
-0.1191895805 -0.09844496891 0.01039573507
-0.08707686705 0.004158758443 -0.6212082505
-0.06668521039 -0.01365023521 -0.6786210236
-0.09317689013 -0.0686384891 0.2420746142
-0.1410141035 -0.07543322418 -0.07907448431
-0.1296424034 -0.02704583601 -0.08969644451
-0.03789865936 -0.02490218677 -0.5514880976
-0.07329664585 -0.1209410167 0.0866879889
-0.08359074813 -0.113366424 0.07998915304
-0.1267485941 -0.06859237664 0.02062109649
0.0323952396 -0.1367347651 -0.182651728
-0.03202930907 -0.1162183989 0.2323447772
0.02647702421 -0.1136174402 0.2226270373
0.07896125566 -0.0937738961 0.2301272723
0.1230542876 -0.03286391536 0.2692203325
0.1357487011 0.01690207555 0.2570387944
0.1285277723 -0.04278091548 0.1760152387
0.1347582609 -0.05245189437 0.1243217842
0.121872271 -0.07396187321 0.08744322556
-0.09214954723 -0.0253336354 -0.2644545527
-0.0817958525 -0.002236728221 -0.6616334626
-0.01344527171 -0.1533796698 0.0237947632
-0.0423028665 -0.06837738219 0.4780329577
0.03006230693 -0.03611660152 0.4717216011
-0.06713229751 -0.1105773704 0.139027854
-0.05238481824 -0.1254924025 0.1363306035
-0.07374026976 -0.00657935108 -0.6706263901
-0.1401880519 -0.06323745651 -0.08129816117
-0.1068685688 -0.06385330662 0.4717901281
-0.0342902503 -0.03432407095 -0.5315919602
-0.02166379821 -0.1497072138 0.0746576662
0.01042921376 -0.140387112 0.1136526698
-0.05951260399 -0.1283789754 0.1012398017
-0.01455785979 -0.1165108799 0.207682436
0.1213699078 -0.06270407436 0.1962332399
-0.04189505904 -0.1403973509 0.09898358694
-0.09058407558 -0.05756831709 0.483615445
-0.05107197443 0.02493227425 0.1222418171
-0.1342563475 -0.08284988872 -0.01574722434
-0.04292822016 -0.02032923866 -0.5876005433
-0.04490703655 -0.02153266032 -0.603391574
-0.06531476984 -0.1116198511 0.1430729765
-0.0805612189 0.008201443345 -0.5755870981
-0.1190777055 -0.04410570411 0.2976223024
-0.02725103368 -0.02251786048 -0.4661948697
0.01352965677 -0.1426364092 0.09754223065
0.1043862081 -0.09715335082 0.09425733017
-0.09102520121 -0.02300740424 -0.2420030963
0.01891984573 -0.1517642821 -0.04901707375
-0.003759082408 -0.1403060117 0.1262135443
-0.03295970115 -0.1161906293 0.2249744306
-0.07486751273 -0.07316671706 0.1812495256
-0.08090378488 -0.06103095435 0.196433756
-0.09120815183 -0.02283428062 -0.228154091
-0.1168862795 -0.02541648888 -0.1122316901
-0.1335733351 -0.04424456806 -0.0936872551
-0.1138773084 -0.08618108547 0.04394856074
0.01967407521 -0.09663870219 -0.3072897272
-0.05021632439 -0.1097363466 0.1797299703
-0.06472666463 -0.006583371356 -0.3900911769
-0.1134191004 -0.04643627148 -0.152706138
-0.07705379748 -0.01080712698 -0.1487348221
-0.1237976538 -0.04465547594 -0.1196368129
0.03932822437 -0.06441418988 -0.1917908025
0.0242731226 -0.03113036669 -0.1866291412
-0.03268420891 -0.136413653 0.3694690463
-0.006495943556 -0.1263806774 0.1660911044
-0.09117816019 -0.06871856226 0.1065832649
-0.0820301426 0.006140958393 -0.4927980938
-0.1188552891 -0.07256815929 0.04153041338
-0.01992586 -0.1381225484 0.2816413324
-0.04282088316 -0.01641983991 -0.5760051733
-0.07721065719 -0.07193173674 0.1932115338
-0.08445454837 -0.08217671265 0.1238063828
-0.1133465336 -0.05840114598 0.06355813401
-0.1264024754 -0.01489241071 0.0235923308
-0.1104289272 0.02924697157 -0.04061389687
0.04116867151 -0.1288384427 -0.1377970425
0.04488138228 -0.09305251519 -0.1786659157
0.043655267 -0.06734647888 -0.1652229449
0.009675943109 -0.03173623731 -0.3194929291
-0.01658146998 -0.1382525609 0.3427528177
0.02988321135 -0.1358374104 0.3330201512
-0.01036974992 -0.1451385342 0.2933210921
-0.03853823686 -0.1154852856 0.2263480604
-0.1051607809 -0.04130773445 0.2609540728
0.03709026858 -0.08464489763 -0.2337264408
-0.02143853332 -0.1296021117 0.2677118126
-0.04365756021 -0.00807014027 -0.515035902
-0.07630897404 0.006352848808 -0.5856607035
-0.1085108394 -0.02956494556 0.4646606235
-0.08609155953 -0.02430153634 0.4883886964
-0.02978450372 -0.03768044552 0.5147224619
-0.1252379739 -0.02413703453 0.4163360431
0.03460118597 -0.141816948 -0.09357380353
0.01728499693 -0.05432968401 -0.3286524393
-0.02785943012 -0.02068915888 -0.4646396937
-0.08555369159 0.009881916368 -0.5194119948
-0.09938703774 -0.005408595201 -0.1135239093
-0.1008386879 0.01832752045 -0.08436489273
0.01239753419 -0.05590278407 -0.3485072574
-0.0822127979 -0.06823439025 0.2048260611
-0.106511372 -0.003952104088 0.2867296438
-0.08401622576 -0.009213672765 0.2335713555
-0.004920006468 -0.1378332258 0.2725084573
-0.1012529732 -0.02020323181 0.2608568027
-0.09353269228 0.01478023132 0.286684688
-0.1239981326 0.00129857661 0.3811624485
-0.09610240614 0.02842843506 0.3798102501
-0.0666482826 0.0523343819 0.3994861983
-0.1173053842 -0.004331570022 0.4152152673
-0.08425113672 0.02798318734 0.4153167215
0.05380650195 -0.1171966673 0.01218116697
-0.04960728257 -0.002277451581 -0.522782718
-0.1346078092 -0.01094015266 -0.06464040915
-0.1432185403 -0.03521415653 -0.0424917197
0.02721585483 -0.1433629143 -0.05074591861
-0.01360764104 -0.01565021321 -0.4086012165
-0.03804073269 -0.005452388386 -0.4431159077
-0.03954030196 -0.002998462777 -0.2775222268
-0.07583979899 0.002546104623 0.4847885472
-0.1090318124 -0.0451104081 0.07153653752
-0.08899373738 0.02372342704 0.06232355857
0.04401059468 -0.1228530947 -0.1271112799
-0.08699361209 -0.0546021602 0.1242159797
0.02583223285 -0.05668906178 -0.2845836108
0.007609164483 -0.1457505175 0.0716941297
-0.09897186237 -0.01139498076 0.4667724561
0.03625409432 -0.0745901364 -0.2327254626
-0.04861466217 -0.06154499268 0.4909971535
-0.05731646821 0.003223200066 -0.5316068281
-0.05161225949 -0.004213862818 -0.3263641002
-0.0517944039 0.01703231699 0.5046287155
-0.02241901091 0.03282083163 0.5251437644
0.05298592802 0.0886200123 0.4907769234
-0.03968871968 0.02871279468 0.5107867407
-0.127360641 -0.003983596509 0.3700772603
-0.005539907929 -0.1326184737 0.2663566173
-0.0427238884 0.001994291192 -0.3998215509
-0.06455537404 -0.006868667957 -0.1975530377
-0.0857060566 0.02003127688 -0.09661423192
0.01652736827 -0.02429826606 -0.1944466749
-0.07177571737 -0.01559746916 0.1464229167
0.04948302671 -0.1085898187 -0.07360006692
0.0434427496 -0.1008271256 -0.1867203964
0.005876399174 -0.1306864172 0.1510200308
0.03525310759 -0.1140399644 0.1895448197
-0.08339582109 -0.01795538777 -0.1648106527
-0.1312498699 -0.01472359835 0.005956688118
-0.1180385368 0.02103629889 -0.03570168065
0.03137999544 -0.07486824655 -0.2684414155
-0.05488827108 -0.003628508557 -0.1705748275
0.003515382929 -0.0137360226 -0.2047957582
-0.0557113896 0.006091532143 -0.1229266845
0.04221288764 -0.1241375578 -0.05902476174
0.02097013545 -0.1385256508 0.03017059254
0.07750327174 -0.1116648336 0.06317663619
-0.08244918944 0.0003606803103 -0.1193744783
-0.09073157929 0.02448154584 -0.08268932474
-0.1149636889 0.004575891237 -0.08712862877
-0.1310631108 0.0002960341009 -0.02652733089
-0.07316880652 0.004548868958 0.2246787707
-0.06975728814 0.02065454515 0.2459679245
-0.06953902268 0.04647335141 0.2827958714
-0.04039620714 0.03210305003 0.1820788321
-0.01653347283 0.06369555086 0.143187363
-0.03914602939 0.03943480526 0.2046224763
-0.1271618859 -0.01364874239 -0.08441157292
-0.1330168028 -0.007816329653 -0.05128260561
-0.1121028519 -0.038563682 0.06523943466
-0.07581942581 -0.01421474195 0.1186117234
-0.1078816336 -0.002526354228 0.4401707753
-0.1128929088 -0.02585866582 0.06049044491
0.05339264323 -0.09021546675 -0.0887731379
0.0001195020969 -0.1176765616 0.1920285506
-0.03929819892 -0.06012564873 0.4848935183
-0.1304389287 -0.001365241596 -0.04184142481
-0.1231891895 0.00395296862 0.01720114758
-0.1184819651 0.007286952485 0.02667519804
0.03160846161 -0.1348100487 0.04034056941
0.06507291661 -0.1161627092 0.04824144673
-0.01634274746 -0.008729452984 -0.3975502452
-0.04042793815 -0.0443949327 0.5053838837
-0.03508868218 -0.0005634403097 -0.1762845042
-0.02191230931 -0.005480858691 -0.2505607801
-0.0615452947 0.005692419296 0.1759811292
0.0235100991 -0.04650962353 -0.2699555024
-0.0159037994 -0.1062293979 0.4243189273
-0.07305297306 -0.01567478721 0.1758214193
-0.09029449315 -0.03009064284 0.0973353681
-0.04710891525 -0.06014300982 0.4919738683
-0.09915816491 0.008444909297 0.2889311592
-0.1006244142 0.01471020388 0.3023498047
0.01438087533 -0.1508971056 0.2983782462
0.04604756746 -0.1314477152 0.3243504755
0.02157423151 -0.1512041614 0.2990916637
0.04810544836 -0.1126081365 0.201741737
0.06784173516 -0.121741619 0.1385560821
-0.119374425 0.00610302257 0.3392204381
0.02720778468 -0.134570776 0.0226342093
-0.05416124572 -0.002959735391 -0.2208357001
-0.07731766966 -0.02479582594 0.1852217739
-0.1279693888 0.0007999388947 0.0007264549028
-0.02495477114 -0.0005337861913 -0.3761529867
0.01409480416 -0.1425497468 0.3274721277
0.008410228117 -0.1325355836 0.3506414306
0.07598788907 -0.1048453273 0.03079803617
-0.09450809458 0.009093000111 0.4445142858
0.0612096779 -0.09774545957 0.2454158077
-0.1232738902 0.01236316857 -0.04069800502
-0.04952980093 0.02981257424 -0.09533291043
0.0445276045 -0.1289622328 0.0609059775
-0.08012102589 0.02819401425 0.07048974199
0.01319455163 -0.081523719 0.4224862299
-0.1124775599 0.00622983792 0.408672888
0.03962570743 -0.06918110893 -0.1971786767
0.01585302079 -0.1194388275 0.2507042385
0.1204749629 -0.07966554109 0.1227280834
-0.06859532472 -0.006391406962 0.1732981731
-0.0599438155 0.02426997395 0.2276968737
-0.06738885423 0.02837687846 0.08685839429
-0.1096227648 0.02094878051 0.3688157883
0.04923222292 -0.1150306696 -0.03760138265
0.1012693621 -0.09984436691 0.09132366883
0.1285935507 -0.04739158223 0.06901365859
-0.000470468845 -0.0188350315 -0.3064117266
0.05233619521 -0.1120418132 0.2067016636
0.04954227238 -0.07868871949 -0.1212459372
-0.02242891382 -0.006537413539 -0.2786254172
-0.06861207799 0.001179559099 -0.1257457992
0.02830320011 -0.045474525 -0.2193286997
0.02867698978 -0.08421046805 0.5930623576
-0.001370751625 -0.07824662662 0.6490187819
-0.01618648225 -0.06476588501 0.6424567584
-0.01152685792 -0.03769094337 0.588921941
-0.08721693982 0.009339715336 -0.1052332648
-0.09976587208 0.03079872166 0.3538118652
-0.0545878028 0.05392941044 0.4362397788
0.01810659674 -0.1108900218 0.3768308573
0.01739406595 -0.1009491452 0.3914322477
0.06537321227 -0.1106538859 0.02411365369
-0.08021973078 0.009808922144 -0.1079210102
-0.1020039302 0.0286673647 -0.06467333423
0.03463342087 -0.04830643019 -0.191253793
-0.001497476306 -0.0166980232 -0.2558849068
-0.1165808249 0.01983151994 0.01384686172
-0.07570916983 0.07367236339 -0.01499067094
0.07272441686 -0.08403408503 0.2627647043
0.1010018381 -0.05925355752 0.3156564144
0.1065396049 -0.02220694352 0.3559216708
0.07854607848 0.002135097013 0.43462115
0.06135954699 -0.02928916201 0.4210756605
0.03775476231 -0.1256890839 0.2651987171
0.006852802416 -0.0243876165 -0.2647818024
-0.00190876318 -0.062190556 0.6047515751
-0.04642717428 -0.02300340745 0.5166369781
0.05516427774 -0.1240442475 0.1437381001
0.005110837475 -0.0756378657 0.6141465942
-0.1009263362 0.0216767016 0.0465137077
0.09659181208 -0.05950661314 0.2733258326
0.05410309475 -0.1276822664 0.07932278547
-0.08489129436 0.06142559283 -0.01483171669
0.05787173745 -0.1063857131 0.2303288614
-0.004295042863 -0.05270425821 0.4935031123
-0.01866522063 -0.03944888821 0.5190133387
-0.02707869129 -0.03132246007 0.5239672152
0.09863124234 -0.07906866618 0.2228504692
0.04073210204 -0.09364357731 0.6228863019
0.0886145032 -0.09272543104 0.6660455482
0.08975858803 -0.06273794055 0.7182720267
0.0312686844 -0.04939202218 0.7416949254
-0.005814867777 -0.07474638899 0.6973413263
0.05188255702 -0.07927824587 0.5469394206
0.03159210272 -0.08842318181 0.6116947017
0.05560106025 -0.09243531287 0.689087712
-0.008500509492 -0.07183085254 0.703886231
-0.04732296515 -0.01068672257 0.7277197781
0.009360083873 -0.08341870266 0.6806027695
0.1078574276 -0.07105342654 0.689855827
0.1106542955 0.005645634692 0.6735752243
0.06305470094 0.05162664115 0.6388256359
0.004465473912 -0.06475684317 0.7256210876
-0.005392687947 -0.0001945547533 0.7501810976
-0.006402890411 0.07075967704 0.6953017198
0.03104780072 0.06548026894 0.7103724793
0.01974582735 -0.009128381845 0.7548593972
-0.02142501472 -0.00983020347 0.7440852162
-0.01039089965 -0.07494569346 0.6862170081
-0.01289422177 0.01609029754 0.55121013
0.06446774149 0.05206161401 0.613733353
-0.1045372128 0.03371260434 0.02119933661
-0.0485136321 0.08224639703 0.05036106445
0.04482181918 -0.09346989681 0.5947799382
0.1081907497 -0.07454073641 0.5398524745
0.1176078252 -0.04604111623 0.6096115825
0.04162998633 -0.09275005507 0.6500583693
0.06241340654 -0.09687264954 0.6574936577
0.078732515 -0.07262866854 0.7162106024
0.04182722696 -0.008832435212 0.7513899623
0.1021722741 -0.01406467989 0.7167802476
0.08837958738 0.03519179153 0.6833101539
0.03968300932 -0.09245213871 0.6681182403
0.02549065423 -0.03000909731 -0.1711024028
0.03005969624 -0.03219134431 -0.1362678372
0.03818885956 -0.03642485291 -0.1100799359
0.01466060466 -0.07714024182 0.7104583679
0.006175710186 -0.07900430596 0.6979659503
-0.02095966013 -0.04697671892 0.6237686385
-0.01989563693 0.02149185835 0.6015555174
-0.01354022003 -0.004845627468 -0.2068110037
-0.06057640769 0.03016064816 0.2416472189
0.05856817871 -0.1128562579 0.2689050134
0.04471073202 -0.08815827986 0.6975864524
0.04324248218 -0.06246013824 -0.1612889658
-0.02059432254 -0.06717708185 0.6685165722
-0.03792673904 -0.02426045759 0.6285529636
-0.05800520998 0.01743637792 0.496320831
0.05493788946 -0.1364650846 0.3026192624
0.04615855334 -0.07077992406 -0.1486861297
0.006019746924 -0.05809982243 0.5753925561
0.01350192758 -0.04665661439 0.4735592834
0.004132053867 -0.05183247304 0.5019266573
0.01924229515 -0.05102399635 0.5110448058
-0.04370559191 -0.04495765891 0.6749676575
-0.05326177823 -0.02897688045 0.6837099335
-0.0246133919 0.0006555479245 -0.1626432548
-0.06881271516 0.0560734124 0.3766660868
-0.01036279176 0.1114397139 0.4525676494
-0.0363524644 0.06435229052 0.4689995526
0.0688285849 -0.1239494263 0.1212445625
-0.01309302822 -0.03082673915 0.5508432013
-0.01863455637 0.002969600991 0.5502738886
-0.05081791564 0.03128501546 0.4906036547
-0.1004199877 0.04160002368 0.01418697165
0.07573880434 -0.09505867261 0.5841242835
0.01499526197 -0.04522679703 0.4785874619
-0.02131317651 -0.006488995359 0.5917364415
-0.04395111976 0.006501894941 -0.1261096207
-0.09190203679 0.0477126112 -0.04095795517
0.09319720065 -0.0971556472 0.1998735606
0.1008068102 -0.08150651576 0.5997699895
0.09837981895 -0.08064382482 0.6430316553
0.1109693091 -0.07691079151 0.5800622232
0.06756110148 -0.08858026626 0.6991914393
0.06054458684 -0.119598516 0.1552931564
0.03605557861 -0.05674856577 0.5399075647
-0.02789978484 0.001782097625 -0.1521547354
-0.09866164618 0.03610343383 0.03058518449
0.0730885122 -0.09561685466 0.6715379908
0.04679101882 -0.06191488863 -0.1339303171
-0.01201742375 -0.03039419688 0.5582343914
0.07589793744 -0.1074503247 0.1989157798
0.05775004989 -0.089752856 0.5619391574
0.01131297383 -0.05569293985 0.5331626299
-0.02911786354 -0.04389712225 0.7273629016
-0.01948408365 -0.002817881869 -0.2012068128
-0.05333707358 0.04203452432 -0.08176413164
-0.06515247076 0.05000949269 0.2788491868
0.06445434472 -0.1072260336 0.270779803
0.09553139841 -0.08458134205 0.5959736411
0.06114489354 -0.08088970708 -0.06960391232
-0.07727495021 0.03860407235 0.4026113014
0.08143429112 -0.09522056813 0.6466167992
0.09659117038 -0.07213133969 0.5259285466
0.07568876858 0.006463356646 0.5555244787
0.07055474579 -0.120251985 0.07972640406
-0.03166582381 -0.01991397446 0.6154498784
-0.02677325019 -0.001177871882 0.5381133213
0.05317271483 -0.03226683858 0.5034045592
0.0653451802 0.001859268383 0.5214494009
-0.01345611451 -0.02882841289 0.5813567119
0.07998223907 -0.1049848546 0.04343204066
0.01869479991 -0.04523100003 0.4675964539
-0.05301996028 -0.01350670355 0.6537167649
0.08193049095 -0.08566187716 0.2803704564
0.07850468113 -0.04451673304 0.5287948719
-0.02941049245 -0.0219210328 0.7387260468
0.05488645137 -0.079474367 0.3670904431
0.06591629636 -0.0601675221 0.366736542
0.08861759452 -0.06152027508 0.3363454827
0.07269787111 -0.1127065119 0.05230655201
-0.05311821986 -0.004653676348 0.6491009707
0.08590288916 -0.09137794897 0.5789269033
0.07418717133 -0.07836256528 0.3428101233
-0.04947625955 0.03116591582 0.2147143996
0.07209920447 -0.1120544268 0.1747219645
0.08186125759 -0.01615891752 0.4011721842
-0.05982219289 0.009566701728 0.6618880644
-0.05811160183 0.09795272782 -0.03005859099
0.07840641487 -0.09808993267 0.2904379273
0.05194980404 -0.0752088834 0.3747101842
-0.05434496255 0.001837707097 0.7181681735
0.01815440866 0.07030845908 0.6617809675
0.04270157089 0.06465405508 0.6599925311
0.1246419613 -0.06672067711 0.598624554
0.04665961181 -0.05778155293 -0.1281684632
0.03547971654 -0.04120967783 -0.1493888376
-0.05831950439 -0.003807375219 0.7081636657
-0.08379590794 0.05986057171 0.01513132033
-0.04129261791 0.1139398831 0.01186083455
-0.06505811465 0.07532788249 0.03024459193
-0.02106891765 0.1190237037 0.04041510773
0.07395220926 -0.1064575909 0.3119962813
0.1107213214 -0.08169134924 0.1536471807
-0.004842327167 -0.003487252377 -0.1699526187
-0.07825489062 0.06661090028 0.0139021138
0.08652147598 -0.104882505 0.181888444
0.1005736928 -0.102834262 0.1156022841
0.02282265746 -0.02698708147 -0.1713883571
-0.00993931548 0.04265766133 0.7390386211
0.0893178596 0.02038403193 0.7115856727
0.03158944194 0.01425050359 0.7517715391
0.0006984536379 0.02733264544 0.7481909074
-0.01754502479 0.03145755177 0.6064690763
-0.05836035981 0.03432776728 0.6906940155
-0.03780513531 0.03362456702 0.1568093781
0.008946354474 0.09443547635 0.2088112212
0.04084824875 -0.0415909245 0.4399728586
0.06673189236 0.01179564564 0.461374781
0.07379049263 0.003408255346 0.5497248039
-0.0686636633 0.04879203947 0.2851700678
0.09163239023 -0.07519538563 0.7059723151
0.07167310721 -0.03881769464 0.7387471524
0.05632563147 -0.05286730628 0.39455135
0.04682201975 -0.03857985072 0.4335701488
0.05571738845 -0.01166203416 0.4613016878
-0.06128881996 0.009888460263 0.6958411434
-0.02520023024 0.05400795587 0.189205315
-0.031367905 0.05228266455 0.2086539921
-0.06289053082 0.08832462421 -0.03290729986
0.0657929321 -0.06022421927 0.5309349366
-0.04897493754 0.04072353441 0.478447362
0.06593402913 -0.05664812525 0.3704985046
-0.02565067557 0.006297258334 0.6007034123
-0.049133283 0.04328673398 0.6995063941
0.09748440747 -0.04742695713 0.7200451682
0.07913688237 -0.03282331221 0.3782894457
0.03793752718 -0.03110852012 0.4597276463
0.02345916973 -0.02232216889 -0.1222610487
-0.03845941756 0.05774127614 0.6899145817
0.1149638585 -0.06912307263 0.5631130345
0.08586894578 -0.04416217869 0.5290255511
0.06513922574 -0.03413207198 0.4053109244
0.01002760249 -0.006893291075 0.75313039
-0.03682622009 0.03995114493 0.1296550156
-0.03929920963 0.1008317581 0.3860308665
0.1058991718 -0.07429872347 0.5314304225
0.08632749443 0.009152534687 0.5651648465
0.1019637041 0.0105429188 0.6125391741
0.1014047286 -0.08476734658 0.208245632
-0.02978236642 0.01950811656 0.7395217626
-0.04052281588 0.1086329292 0.02462746704
0.1162027002 -0.06188808799 0.6290365588
-0.02856476655 0.02310544109 0.5273590229
-0.02761651484 0.04803546617 0.6328677434
-0.03575501174 0.04835375559 0.215473392
0.1101515945 -0.07841036243 0.6595956047
0.1055908779 -0.04401925098 0.713217389
0.08118555549 -0.06473353989 -0.04989187135
0.04824097874 0.03374230133 0.5262421683
-0.05599747577 0.09129975571 -0.05140603604
-0.02566107456 0.1297345657 -0.06469402072
0.05409038773 0.1562516413 -0.01891556839
0.05127847816 0.1418521374 0.03887655485
-0.07136793164 0.080087005 -0.01332045338
-0.05870235366 0.09706164335 -0.002322173668
0.07093351521 -0.03607215699 0.5277774706
-0.02805643669 0.05832414512 0.1153543945
-0.01437591806 0.1266982825 0.3102311975
0.01514319179 0.1459611772 0.3262401433
0.007313274286 0.1473824187 0.3863492849
-0.04059459559 0.1037700489 0.3415962471
-0.01297818863 0.1360813876 0.3310937952
0.03249206848 0.141777134 0.305199801
-0.0641752691 0.06727449298 0.3397680613
-0.04882041551 0.07764463485 0.2899816971
-0.00800550038 0.1215902775 0.2857115357
0.1164534 -0.08537865478 0.5921270282
-0.05852761554 0.06454844339 0.2891343898
0.05879314499 -0.009130631495 0.4910196851
-0.04297191452 0.04503508738 0.6492946433
0.01334381078 0.08888878908 0.1712341821
0.09874871784 -0.06646871028 0.2921674151
0.08214252469 -0.05768216877 0.3509743921
0.06936156697 -0.02258671242 0.5239705313
0.1038479715 -0.02542890038 -0.08542346079
0.110800912 -0.01433390498 -0.1703280306
0.1248089179 0.01159598095 -0.2532349407
0.1418664239 0.05919807612 -0.2658739768
0.1575748035 0.04141938532 -0.2104739373
0.1454152168 0.08267265748 -0.2345789345
0.03998709672 0.03348376147 0.5464590403
0.004505213861 0.08558071586 0.1857787935
0.1048332366 -0.0488523248 0.2693326496
0.06413763122 -0.007074702689 0.5142470773
0.01162922299 0.057936722 0.5211277397
-0.02105528373 0.0638355337 0.7053969718
0.1168588898 -0.07469494149 0.1545554022
0.05640528271 -0.03065163605 0.5061902218
0.01616100547 0.03607905485 0.5527528261
-0.04892823248 0.06976281712 0.4233904944
-0.03199286238 0.09054234369 0.43579033
-0.04052391839 0.09614483869 0.308675933
0.1202566009 -0.0324773451 0.2657908276
-0.04512841574 0.05218543903 0.6868633893
0.1385345018 -0.005882880546 0.05201517757
0.15171245 0.07187678457 0.03180698321
0.1366005952 0.06249488809 0.1168577238
-0.03884722701 0.0681667818 0.4560378949
-0.04248992087 0.09188864848 0.3936081705
0.1129695319 -0.05239998403 0.2284729915
0.1047901652 -0.07646235764 0.0309886601
0.1334743885 -0.02083784603 0.04278048697
0.05884771533 -0.01431962756 0.497864172
-0.007295635192 0.07029091947 0.501969316
-0.05718764829 0.07247457267 0.3789479399
0.1011614146 -0.07657053792 0.02029454736
0.1568623831 0.01945647208 0.2987848791
0.09332467399 0.1080242006 0.2631280849
0.09251858054 -0.08006692039 0.008007857213
0.1106759717 -0.03493559213 0.7084562795
0.1478750302 -0.01334047648 0.3049082802
0.1315417688 0.07333512321 0.2905325045
0.1411310772 -0.02631517649 0.2970904081
-0.03689503823 0.06277060552 -0.09478359398
-0.01962772713 0.08329727334 -0.107473108
0.002514937502 0.1044108081 -0.1321137932
0.03209946509 0.1340294347 -0.1570377117
0.1062391031 0.1546812134 -0.09967794554
0.1260670653 0.1400364552 -0.1529498255
0.1398935442 0.1248744696 -0.1603160617
-0.007273920515 0.06450552596 -0.1411477258
0.01050113836 0.01757133274 -0.1937484619
0.07746938303 -0.01233384311 -0.2209020707
-0.006705384216 0.1066133364 -0.1142766691
-0.02901081083 0.08877645314 -0.09629443762
-0.01650720543 0.06345745954 0.1628154879
0.01991590685 0.1111833395 0.2348980062
0.1311714123 0.05317372776 0.2596710852
0.06651284124 0.1286415158 0.2806958915
-0.03824954507 0.10544211 0.3740660956
-0.02494880285 0.1294541861 0.3588889989
0.009844392299 0.1457832447 0.3932979522
0.1173568964 -0.0592892432 0.6168689078
0.1257004279 -0.06944374902 0.08113339542
0.002500433358 0.08353965937 0.1298203143
-0.01898628364 0.1040931887 0.06528145847
0.04858054442 0.1258378277 0.08200196042
0.1091974748 0.1248958358 0.05292036332
0.1499776355 0.03236505223 0.007560795307
0.1223136215 -0.03869446688 0.02601095034
-0.05198038411 0.08641470142 0.347272194
0.127075204 -0.03927853399 0.3028651802
0.1147418949 -0.03542031491 0.3319028319
0.01579508595 0.00307968761 -0.1342118223
0.04212004438 -0.008255343463 -0.1794532648
0.09196617531 -0.03532740248 -0.07162152775
0.02058468367 -8.62152216e-05 -0.1358154389
0.04446839004 -0.01349664846 -0.1471379805
0.004715200072 0.01474495522 -0.1464442527
0.00652044532 0.02416260715 -0.2028333472
0.01233446661 0.02453675389 -0.2807156373
0.041842851 0.0005755751545 -0.257913663
0.02772629759 0.004258210535 -0.2178369613
0.005193212991 0.03345948366 -0.2716544825
-0.004013050079 0.04593380443 -0.3770333872
0.07243019256 0.02141621978 -0.3816043912
0.03624384403 0.02217454099 -0.3689351003
0.0204814731 0.09986987297 0.1194435722
0.02841361803 0.1006305138 0.1322469431
0.1087552393 -0.04269592017 0.5326413309
0.1035107932 -0.06782402486 0.01184307228
-0.004582190679 0.02359464655 -0.1240638871
-0.0108510229 0.03653947557 -0.1194409457
-0.05075695819 0.08754946623 0.03867293781
0.1294058035 -0.04042541956 0.05863488803
0.1306778304 -0.01200740575 0.1603007453
0.0634658607 -0.02530020277 -0.1079405413
0.09549801616 -0.02519082657 -0.09789141998
0.1037912076 -0.01643565697 -0.1661964156
0.1331421845 -0.0004997432632 -0.1921115493
0.1516728845 0.0906685201 -0.1975218394
0.09104828716 0.1377332534 -0.2326009853
0.04782532206 0.1311459501 -0.2740421054
0.02013167475 0.109465656 -0.3193115311
0.09315125106 0.1110257545 -0.3350233622
0.1353937801 0.04274750115 -0.2763422144
0.1334965544 0.03239852084 -0.2709029233
0.1135286173 0.08127397526 -0.3276564903
0.1224109133 0.007843355166 -0.2491097899
0.04785756615 -0.00432898035 -0.231586006
0.02861726715 -0.001543458438 -0.1720051708
0.02661082564 0.04176221003 0.5989251426
-0.03907389171 0.06248031077 0.464909299
-0.002391648084 0.07633046648 0.156363162
-0.02295984177 0.08937260652 0.2567060076
0.1229969412 -0.05297853734 0.6673329013
0.05529017027 -0.01997310066 -0.1252086426
-0.008813486171 0.03370165096 -0.1240714339
0.08232056654 0.09252926699 0.1883670482
0.08931323514 -0.01960124094 0.3814795396
0.09199758292 -0.0402912109 -0.06320168062
0.09421385815 0.006207185136 0.5701920477
0.1251246644 -0.02149093155 0.2041177924
0.02010537242 0.00363720821 -0.1638603707
0.01326038247 0.05272032906 0.7332986087
-0.02927690497 0.1135510395 0.3170487496
0.1261803893 -0.04447603199 0.1997078747
0.1267831737 -0.03467993683 0.1998441366
0.06270225039 0.0002357901655 0.4579847313
-0.01963562992 0.06525740551 0.652707069
-0.03634291721 0.09259946861 -0.085503521
0.1105216315 0.002386186825 0.618910728
0.07307469305 -0.02139867976 -0.1371141913
0.004447955148 0.04404992637 0.531742757
0.1114237272 -0.03437030682 0.2417911364
0.09179137341 -0.03041147849 -0.08408760468
0.1356412023 -0.00260314629 -0.04464536013
0.1555387471 0.1036321925 -0.04120384049
0.153280784 0.09345502382 -0.001670184434
0.1560438379 0.007489103895 -0.1115899013
0.1618587976 0.08922805789 -0.1528942353
0.1319409927 0.112933739 -0.2172644712
0.1141190697 0.09725096587 -0.3045517462
0.09349555265 0.008811833694 -0.3175882427
0.01044092792 0.03469785568 0.5559204642
-0.007734605835 0.1366265101 0.01676302088
0.05869515462 0.02935644301 0.5038629582
0.01938799407 0.01012562198 -0.207106274
0.0508666797 -0.0105238244 -0.1917353672
-0.01686934132 0.09174796185 0.2501925535
0.1109667859 -0.03154418636 0.340666227
0.1300165236 0.03712945308 0.3675868167
0.1173640582 0.03602893347 0.3962367139
0.08072541994 0.01464738688 0.4443275942
0.1186144252 0.02740929502 0.3847706601
0.1333260054 -0.05022260636 0.09305438552
0.05926027208 0.04190142247 0.7242678561
0.06288423152 0.01485715525 0.7388996788
0.02383175609 0.03556129851 0.577132448
0.1179501581 -0.01351863705 0.5959855765
0.1154364741 -0.03604093657 0.2319768758
0.0814195085 2.94675849e-05 0.550817178
0.1181315391 -0.01727354047 -0.1048897431
0.1414452086 0.001778638856 -0.1698151003
0.1587411573 0.04807021558 -0.2108274462
0.1580930253 0.02356572266 -0.1779432467
-0.004925033024 0.0457106225 -0.1535802894
0.004325003674 0.08357465713 0.1777740576
0.1457086239 -0.02149830794 0.2883622183
0.08922337035 0.005690943515 0.7234176719
0.008456000103 0.07125806829 0.6665885551
0.1047680702 0.0117952311 0.6465121262
0.12229241 -0.03785364488 0.2137799235
0.05377637825 0.02784550548 0.5616123572
0.0001390029696 0.03863662599 -0.2106806454
0.1102717391 0.01585264663 0.3886376905
0.01254123699 0.06193106201 0.7223470918
-0.002618537331 0.05545339521 -0.1964453092
0.003638945679 0.09183265738 -0.209597968
0.01145825535 0.1072105199 -0.1678855775
-0.00130507396 0.07653984679 -0.1683336575
-0.01713262759 0.07095292203 -0.1148706813
0.0201067057 0.1231032127 0.2593566539
0.0335098441 0.1268706254 0.07420759022
0.1278744966 0.004005162472 0.1691463045
0.1080862607 0.07860544585 0.2451079766
0.01893677671 0.01320183092 -0.2340183092
-9.234827678e-05 0.03825957813 -0.3557688285
0.1253333334 -0.02572713601 0.6619304991
0.1522245426 -0.009773081882 0.2983155768
0.1009230036 -0.00529761443 0.7155231413
0.07967914268 0.003362326831 0.4337680252
0.06630912201 0.06398692204 0.4818608282
-0.001582112295 0.04591615123 -0.2230810192
0.007131846543 0.1009270391 -0.2463616621
0.02330731697 0.1227781403 -0.2250418791
0.1003556823 0.1149862246 -0.2934879293
0.04955534785 0.1217355688 -0.3268933975
-0.0251716067 0.09643755174 0.4433612952
-0.02403557393 0.1247332532 0.3897460048
-0.02712170118 0.1270864838 0.3573890377
0.1223336317 -0.02663553241 0.6350255233
0.06225170305 0.01558157579 0.480177082
0.08642941303 -0.01097498006 -0.2351666722
0.00747227449 0.05751038351 0.6231707741
0.04863566692 0.1220621556 0.4750880253
0.03014438691 0.129653759 0.4634278058
-0.009716781084 0.143608002 -0.01862138842
0.04622882841 0.1204918771 0.09091691166
0.1039445064 0.1216855027 0.06907721289
0.1221518392 -0.01768667156 0.6703648077
0.08418900704 0.005209869349 0.7285491013
0.04687004561 0.0382077586 0.5190741823
0.1163398905 -0.01222745104 0.351909463
0.06378702132 0.02319190968 0.5778350236
0.0218493521 0.1224698155 0.07527145395
0.1396452722 0.008033207237 0.1307342053
0.132051339 -0.008124315946 0.007046849928
0.05980066645 0.02933273842 0.586485559
0.05030126072 0.007367636418 -0.3210908048
0.08806053401 0.003739258435 -0.3056065901
0.0397430838 0.03325728059 0.5703796095
0.03975654206 0.05633248749 0.6312708916
0.1221086818 -0.02058053801 0.6772997927
0.1662812385 0.02975694352 -0.06851347739
0.1545566305 0.03034799405 -0.0226507011
0.1590828415 0.09424020583 -0.03549128655
0.1571445784 0.08911201997 -0.01148733581
0.1586254431 0.05697407251 -0.0002101824503
0.144921931 0.009366043399 -0.03937269769
0.02343755254 0.06036502648 0.5180897346
0.009992786969 0.1368032389 0.4318192963
-0.001314844307 0.1253424488 0.2832514945
0.1130363062 -0.007111744425 0.5950947989
0.01331342392 0.0237290662 -0.2927384311
-0.003172746918 0.06171841444 -0.2244064895
-0.003990430562 0.05196109281 -0.341682137
0.0850065211 0.1322988402 -0.2601644569
0.0001806305895 0.08560634418 -0.1563096082
0.008158152158 0.1288448582 -0.1130125679
0.03838090125 0.156650624 -0.02557504658
-0.0009392675468 0.1204350064 -0.1102268376
-0.0173142919 0.1159657826 0.2910927322
0.1216791099 0.01743377188 0.1888297086
0.08644748068 -0.01671775228 -0.1769255846
0.08575740333 -0.01384464026 -0.20687812
0.05231345823 0.04450771298 0.6118708545
0.1255717827 -0.02023393002 0.646089354
0.1196061501 -0.0152216397 0.6199825711
0.1458649463 0.04154156751 0.3200108985
0.139749315 0.08361085834 0.394012946
0.1390698743 -0.010257954 0.1319913656
0.1408537959 -0.02264654402 0.09046182747
0.0953731057 0.04447949653 0.4424355349
0.06198350241 -0.00302683851 -0.2837966636
0.0282382945 0.02075166773 -0.3529274027
0.009110704003 0.0293540186 -0.3643628125
0.05354361443 -0.001803536182 -0.2806707309
0.005199830323 0.03384655911 -0.2804780946
-0.003932107078 0.07177271998 -0.3638744237
-0.009746418909 0.07821959252 -0.4587235874
0.001190329381 0.06573070026 -0.5555363116
-0.02088611508 0.107734106 -0.6162594304
0.004891333298 0.1494426138 -0.6362404486
0.04596353995 0.1488629069 -0.6066711971
0.07209915639 0.1183020393 -0.6154561407
0.04933369056 0.06228781019 -0.5470441717
-0.001139563205 0.04645069136 -0.2457138355
0.1186261759 0.007125199808 0.2243907768
0.06448641248 0.03815177492 0.6023276006
0.01544176661 0.02282929373 -0.3321622057
0.02850569442 0.0629752528 0.6403942088
-0.004413768897 0.09477262664 -0.4301361334
-0.01314474223 0.0749673413 -0.5355603457
0.06908148039 0.1284973507 -0.6093712959
0.05451297366 0.1287540441 -0.6804075056
0.02656833276 0.07562197223 -0.6698418349
0.04492332551 0.07295891909 -0.6196345006
-0.008862548111 0.1182569057 0.2801921177
0.01780030731 0.1277456936 0.06303137233
0.129280928 -0.02254290615 0.0272123116
0.1476061828 0.06855460374 0.07319203552
0.13151273 -0.00925283266 -0.07493314008
0.1434731514 -0.001263429514 -0.1409095591
0.06875942146 0.03653269959 0.6021961815
-0.003075333098 0.103450568 0.4707158976
0.1247998851 0.01217675107 0.1786891413
0.04303336702 0.04454620706 0.6081125372
-0.02526331829 0.1280945738 0.3693388047
0.1376227889 -0.02073738088 0.1366388476
0.1310978115 -0.01190244637 0.01874753444
-0.003833358008 0.04851298093 -0.3486996103
0.04107879693 0.1118858364 0.481676666
0.06812743632 0.1337574816 0.4642239401
0.1477496606 0.1450419589 0.4140601565
0.02472572866 0.1152524744 -0.3009879499
0.01417166737 0.1024844887 -0.3432973341
0.03325228742 0.1438698086 -0.453680397
0.08744527161 0.1043785162 -0.5255016979
0.03979355613 0.1508079805 -0.4907090308
0.01306340227 0.1276874693 -0.4326162101
0.007644435987 0.09116561559 -0.3275932042
0.1139529586 0.0005425241977 0.6663096999
0.1163833421 0.02737929455 0.2112623402
0.03658031514 0.01007101019 -0.3158474253
0.03433428008 0.07850241094 0.5036824763
0.006577618073 0.1203002107 -0.1219825379
0.04052814259 0.1460310207 -0.136360903
0.02200436497 0.1534530619 -0.07682225726
-0.0203246503 0.1214122145 0.4072434037
0.1242318321 -0.02193034964 0.004907280813
-0.00295781781 0.06687722156 -0.2512022674
0.03647396777 0.1038888499 0.2049014831
0.1407582652 0.03335850854 0.1202614148
0.1239824989 -0.01250796539 -0.14360475
0.02266718121 0.02514073248 -0.37184595
-0.02401421525 0.125653754 -0.07339253339
0.1323428342 -0.005831851614 -0.004517054847
0.06802135287 -0.006012278176 -0.2709902391
0.03432788453 0.03843343636 -0.4277898763
0.09533440257 0.03977514715 -0.4105349029
0.09095112275 0.09265476362 -0.4079324143
0.08683458226 0.08919392239 -0.4979222585
0.08175174518 0.1158136693 -0.5513598546
0.01939115496 0.1581712539 -0.5513167587
-0.009137868413 0.139362286 -0.6370954891
-0.01595705111 0.09995206972 -0.6760127275
-0.005007136646 0.05492681091 -0.3946984735
-0.006178483091 0.06506671232 -0.3866689526
-0.001098742621 0.1439259868 -0.0003308519886
0.1302128309 -0.0001184603742 0.2551693694
0.1248085851 -0.01636163441 -0.02967959767
0.1300457194 -0.004548353897 0.1603054923
0.07094118094 0.05079898336 0.6892810123
0.002812241069 0.08113803491 -0.3089677327
0.01246512405 0.1450968465 0.0116477434
0.122735667 0.02592206957 0.3752403166
0.06649725018 0.0544967534 0.6605517625
0.07262910843 0.07633899676 0.4769958645
0.01204199791 0.1072768281 0.2342716775
0.1443718289 0.002881282373 -0.06348404543
0.1004682365 -0.005980904325 -0.2451183206
0.02036491914 0.04575886685 -0.4521059466
0.01177706513 0.04782908603 -0.4447066846
-0.004837909361 0.07167017722 -0.4179411952
0.08485023227 0.1400030515 0.4535922531
-0.00507690978 0.1422011558 -0.08021320823
0.00107482465 0.1496364887 -0.02664383164
0.03173697748 0.1501718307 0.005646483283
0.08374660432 -0.004210804738 -0.2743234661
0.06890864331 0.0526844698 0.6296732785
0.007013820638 0.09535116695 -0.3664939362
0.07517177977 -0.002519736576 -0.2885933686
0.0302056657 0.05360131709 -0.5007614561
-0.001062190206 0.06955341474 -0.2872873
0.1382353912 0.01450946296 0.3382245438
0.1447449121 0.006342985611 0.09265175268
0.04007680994 0.1113025307 0.1071458826
0.0007133247215 0.1160821658 0.2637924951
0.1432650305 -9.265630555e-05 0.08616402511
0.01461420249 0.1126162851 -0.2186437642
0.08260948282 0.1543469905 -0.1650062849
0.05825739214 0.15610365 -0.1235171119
0.1286589987 0.01564386678 0.3556776606
0.1344181356 0.06439773679 0.3741243835
0.1200541741 0.05338025081 0.4104138402
-0.01833228333 0.08259918063 -0.5498625136
0.01240507076 0.1525915047 -0.01932826434
0.0654238249 0.01726038467 -0.3627119933
0.02128286601 0.04010975583 -0.4297939756
0.05711810568 0.05819408101 -0.5076545165
0.06636078896 0.07629728716 -0.5760907033
0.06444703844 0.1317244236 -0.6256983978
-0.0001643726857 0.1420646293 -0.6768363426
0.03259214617 0.1275842644 -0.7502912055
0.0645425152 0.1136645297 -0.6630189764
0.01494766475 0.05595397428 -0.4956315914
-0.00759272091 0.07030920095 -0.4796242095
0.02147696211 0.06263470134 -0.5820214246
0.01668590737 0.06913412238 -0.6267983659
-0.02328005651 0.1137849416 -0.5548561319
-0.01111761313 0.1425600369 -0.5567123881
0.01152265689 0.1273402189 0.4551627358
0.03812407459 0.1384672413 -0.1641979437
0.0260368126 0.1256208011 -0.1770611537
0.03508424241 0.1350894134 -0.1687194023
0.1277914762 0.02133352159 0.360946793
0.1451266811 0.00670151278 0.07667525133
0.1414655986 0.02210512263 0.118846655
0.06137640622 0.01358400378 -0.3479200784
0.09936136352 0.02630100689 -0.3754184865
0.115009278 0.0378490333 -0.3268852131
0.002435942405 0.06042756928 -0.4746336798
0.01895838755 0.06030915764 -0.5558912694
-0.006235009335 0.07484293586 -0.597630816
-0.001507513548 0.06877683688 -0.2792428803
0.00746055145 0.1043734472 -0.3908075939
-0.01114656641 0.1294322918 -0.4966909481
0.1568008503 0.007844777016 0.2983117336
0.08614974139 0.05207725098 0.4583320915
0.005639419379 0.06033181252 -0.4991328934
0.03406596646 0.05639099828 -0.520267747
-0.004739482449 0.142543438 0.3383310304
0.1135008754 0.06570014725 0.4327173051
0.04671344718 0.04387010987 -0.4487289063
0.00396725096 0.07713670463 -0.6625715007
-0.01793907185 0.08944371971 -0.5987392255
-0.0223952936 0.117111448 -0.5763572409
0.03964007622 0.1444688653 0.02819715012
0.1349146685 -0.0006601380215 -0.1862106973
0.1060184925 0.1051162457 0.1057893876
0.07346516124 0.1275561146 0.4688221783
0.01015145283 0.1045065465 -0.1972564301
0.02641660494 0.1494894106 -0.09248984803
0.1199090061 0.009532823173 0.2016634547
0.05957492214 0.02498028856 -0.3889109198
0.03116635009 0.06297477105 -0.5791320464
0.0194329276 0.06463873952 -0.5995085384
-0.01978141515 0.1190550013 -0.5164415849
0.03142214965 0.1560450378 -0.02708766449
0.05471210793 0.1607623205 -0.05808823012
0.09356009252 0.1570127013 -0.1230040258
0.1183782466 0.1456900543 -0.1489470764
0.1210886463 -0.002702997414 -0.2153788451
0.125809551 0.02331645338 0.1719745463
0.04858250009 0.0650603581 -0.5669148253
-0.01555348982 0.1007706419 -0.476565843
-0.0210543455 0.1083458622 -0.5081958034
0.1040119163 -0.001049071087 -0.2622126143
0.1089669992 0.009069154788 -0.2839358756
0.1477676877 0.02773395453 0.01987694818
0.07021472362 0.04377833889 -0.4441212404
0.02253187435 0.05554685544 -0.5099101412
0.02310990821 0.06614922055 -0.6112725363
0.02810450032 0.1469365077 -0.1085146668
0.1420916455 0.02647371425 0.3329491115
0.04403196478 0.03351235047 -0.4170298887
-0.01163922271 0.08462632603 -0.628018101
0.07381192183 0.1419169231 0.03035855525
0.06646810744 0.02588079896 -0.401645142
0.06660757217 0.1208817316 0.09362145914
0.06237327375 0.0238854508 -0.3859289374
0.0120727117 0.09884827528 -0.3205239876
0.07613236461 0.1101236685 0.125660501
0.04936897064 0.1504635853 0.007656028127
0.1328522245 0.04941082899 0.3673321886
0.1445060016 0.05310587299 0.1018134292
-0.01804648087 0.09934526205 -0.6362373858
0.09373253686 0.1090855859 0.1102763767
0.1346361619 0.06238098279 0.3557217302
